# .PCD v0.7 - Point Cloud data file format
VERSION 0.7
FIELDS x y z
SIZE 4 4 4
TYPE F F F
COUNT 1 1 1
WIDTH 1590
HEIGHT 1
VIEWPOINT 0 0 0 1 0 0 0
POINTS 1590
DATA ascii
-7.000000 7.800000 -25.000000
-7.000000 7.500000 -25.000000
-7.000000 7.200000 -25.000000
-7.000000 6.900000 -25.000000
-7.000000 6.599999 -25.000000
-7.000000 6.299999 -25.000000
-7.000000 6.000000 -25.000000
-7.000000 5.700000 -25.000000
-8.000000 15.000000 -25.000000
-8.000000 14.700000 -25.000000
-8.000000 14.400000 -25.000000
-8.000000 14.100000 -25.000000
-8.000000 13.800000 -25.000000
-8.000000 13.500000 -25.000000
-8.000000 13.200000 -25.000000
-8.000000 12.900000 -25.000000
-8.000000 12.600000 -25.000000
-8.000000 12.300000 -25.000000
-8.000000 12.000000 -25.000000
-8.000000 11.700000 -25.000000
-8.000000 11.400000 -25.000000
-8.000000 11.100000 -25.000000
-8.000000 10.799999 -25.000000
-8.000000 10.500000 -25.000000
-8.000000 10.200000 -25.000000
-8.000000 9.900000 -25.000000
-8.000000 9.600000 -25.000000
-8.000000 9.299999 -25.000000
-8.000000 9.000000 -25.000000
-8.000000 8.700000 -25.000000
-8.000000 8.400000 -25.000000
-8.000000 8.100000 -25.000000
-8.000000 7.800000 -25.000000
-8.000000 7.500000 -25.000000
-8.000000 7.200000 -25.000000
-8.000000 6.900000 -25.000000
-8.000000 6.599999 -25.000000
-8.000000 6.299999 -25.000000
-8.000000 6.000000 -25.000000
-8.000000 5.700000 -25.000000
-8.000000 5.400000 -25.000000
-9.000000 15.000000 -25.000000
-9.000000 14.700000 -25.000000
-9.000000 14.400000 -25.000000
-9.000000 14.100000 -25.000000
-9.000000 13.800000 -25.000000
-9.000000 13.500000 -25.000000
-9.000000 13.200000 -25.000000
-9.000000 12.900000 -25.000000
-9.000000 12.600000 -25.000000
-9.000000 12.300000 -25.000000
-9.000000 12.000000 -25.000000
-9.000000 11.700000 -25.000000
-9.000000 11.400000 -25.000000
-9.000000 11.100000 -25.000000
-9.000000 10.799999 -25.000000
-9.000000 10.500000 -25.000000
-9.000000 10.200000 -25.000000
-9.000000 9.900000 -25.000000
-9.000000 9.600000 -25.000000
-9.000000 9.299999 -25.000000
-9.000000 9.000000 -25.000000
-9.000000 8.700000 -25.000000
-9.000000 8.400000 -25.000000
-9.000000 8.100000 -25.000000
-9.000000 7.800000 -25.000000
-9.000000 7.500000 -25.000000
-9.000000 7.200000 -25.000000
-9.000000 6.900000 -25.000000
-9.000000 6.599999 -25.000000
-9.000000 6.299999 -25.000000
-9.000000 6.000000 -25.000000
-9.000000 5.700000 -25.000000
-9.000000 5.400000 -25.000000
-9.000000 5.099999 -25.000000
-10.000000 15.000000 -25.000000
-10.000000 14.700000 -25.000000
-10.000000 14.400000 -25.000000
-10.000000 14.100000 -25.000000
-10.000000 13.800000 -25.000000
-10.000000 13.500000 -25.000000
-10.000000 13.200000 -25.000000
-10.000000 12.900000 -25.000000
-10.000000 12.600000 -25.000000
-10.000000 12.300000 -25.000000
-10.000000 12.000000 -25.000000
-10.000000 11.700000 -25.000000
-10.000000 11.400000 -25.000000
-10.000000 11.100000 -25.000000
-10.000000 10.799999 -25.000000
-10.000000 10.500000 -25.000000
-10.000000 10.200000 -25.000000
-10.000000 9.900000 -25.000000
-10.000000 9.600000 -25.000000
-10.000000 9.299999 -25.000000
-10.000000 9.000000 -25.000000
-10.000000 8.700000 -25.000000
-10.000000 8.400000 -25.000000
-10.000000 8.100000 -25.000000
-10.000000 7.800000 -25.000000
-10.000000 7.500000 -25.000000
-10.000000 7.200000 -25.000000
-10.000000 6.900000 -25.000000
-10.000000 6.599999 -25.000000
-10.000000 6.299999 -25.000000
-10.000000 6.000000 -25.000000
-10.000000 5.700000 -25.000000
-10.000000 5.400000 -25.000000
-10.000000 5.099999 -25.000000
-10.000000 4.799999 -25.000000
-11.000000 15.000000 -25.000000
-11.000000 14.700000 -25.000000
-11.000000 14.400000 -25.000000
-11.000000 14.100000 -25.000000
-11.000000 13.800000 -25.000000
-11.000000 13.500000 -25.000000
-11.000000 13.200000 -25.000000
-11.000000 12.900000 -25.000000
-11.000000 12.600000 -25.000000
-11.000000 12.300000 -25.000000
-11.000000 12.000000 -25.000000
-11.000000 11.700000 -25.000000
-11.000000 11.400000 -25.000000
-11.000000 11.100000 -25.000000
-11.000000 10.799999 -25.000000
-11.000000 10.500000 -25.000000
-11.000000 10.200000 -25.000000
-11.000000 9.900000 -25.000000
-11.000000 9.600000 -25.000000
-11.000000 9.299999 -25.000000
-11.000000 9.000000 -25.000000
-11.000000 8.700000 -25.000000
-11.000000 8.400000 -25.000000
-11.000000 8.100000 -25.000000
-11.000000 7.800000 -25.000000
-11.000000 7.500000 -25.000000
-11.000000 7.200000 -25.000000
-11.000000 6.900000 -25.000000
-11.000000 6.599999 -25.000000
-11.000000 6.299999 -25.000000
-11.000000 6.000000 -25.000000
-11.000000 5.700000 -25.000000
-11.000000 5.400000 -25.000000
-11.000000 5.099999 -25.000000
-11.000000 4.799999 -25.000000
-11.000000 4.500000 -25.000000
-12.000000 15.000000 -25.000000
-12.000000 14.700000 -25.000000
-12.000000 14.400000 -25.000000
-12.000000 14.100000 -25.000000
-12.000000 13.800000 -25.000000
-12.000000 13.500000 -25.000000
-12.000000 13.200000 -25.000000
-12.000000 12.900000 -25.000000
-12.000000 12.600000 -25.000000
-12.000000 12.300000 -25.000000
-12.000000 12.000000 -25.000000
-12.000000 11.700000 -25.000000
-12.000000 11.400000 -25.000000
-12.000000 11.100000 -25.000000
-12.000000 10.799999 -25.000000
-12.000000 10.500000 -25.000000
-12.000000 10.200000 -25.000000
-12.000000 9.900000 -25.000000
-12.000000 9.600000 -25.000000
-12.000000 9.299999 -25.000000
-12.000000 9.000000 -25.000000
-12.000000 8.700000 -25.000000
-12.000000 8.400000 -25.000000
-12.000000 8.100000 -25.000000
-12.000000 7.800000 -25.000000
-12.000000 7.500000 -25.000000
-12.000000 7.200000 -25.000000
-12.000000 6.900000 -25.000000
-12.000000 6.599999 -25.000000
-12.000000 6.299999 -25.000000
-12.000000 6.000000 -25.000000
-12.000000 5.700000 -25.000000
-12.000000 5.400000 -25.000000
-12.000000 5.099999 -25.000000
-12.000000 4.799999 -25.000000
-12.000000 4.500000 -25.000000
-12.000000 4.200000 -25.000000
-13.000000 15.000000 -25.000000
-13.000000 14.700000 -25.000000
-13.000000 14.400000 -25.000000
-13.000000 14.100000 -25.000000
-13.000000 13.800000 -25.000000
-13.000000 13.500000 -25.000000
-13.000000 13.200000 -25.000000
-13.000000 12.900000 -25.000000
-13.000000 12.600000 -25.000000
-13.000000 12.300000 -25.000000
-13.000000 12.000000 -25.000000
-13.000000 11.700000 -25.000000
-13.000000 11.400000 -25.000000
-13.000000 11.100000 -25.000000
-13.000000 10.799999 -25.000000
-13.000000 10.500000 -25.000000
-13.000000 10.200000 -25.000000
-13.000000 9.900000 -25.000000
-13.000000 9.600000 -25.000000
-13.000000 9.299999 -25.000000
-13.000000 9.000000 -25.000000
-13.000000 8.700000 -25.000000
-13.000000 8.400000 -25.000000
-13.000000 8.100000 -25.000000
-13.000000 7.800000 -25.000000
-13.000000 7.500000 -25.000000
-13.000000 7.200000 -25.000000
-13.000000 6.900000 -25.000000
-13.000000 6.599999 -25.000000
-13.000000 6.299999 -25.000000
-13.000000 6.000000 -25.000000
-13.000000 5.700000 -25.000000
-13.000000 5.400000 -25.000000
-13.000000 5.099999 -25.000000
-13.000000 4.799999 -25.000000
-13.000000 4.500000 -25.000000
-13.000000 4.200000 -25.000000
-13.000000 3.900000 -25.000000
-14.000000 15.000000 -25.000000
-14.000000 14.700000 -25.000000
-14.000000 14.400000 -25.000000
-14.000000 14.100000 -25.000000
-14.000000 13.800000 -25.000000
-14.000000 13.500000 -25.000000
-14.000000 13.200000 -25.000000
-14.000000 12.900000 -25.000000
-14.000000 12.600000 -25.000000
-14.000000 12.300000 -25.000000
-14.000000 12.000000 -25.000000
-14.000000 11.700000 -25.000000
-14.000000 11.400000 -25.000000
-14.000000 11.100000 -25.000000
-14.000000 10.799999 -25.000000
-14.000000 10.500000 -25.000000
-14.000000 10.200000 -25.000000
-14.000000 9.900000 -25.000000
-14.000000 9.600000 -25.000000
-14.000000 9.299999 -25.000000
-14.000000 9.000000 -25.000000
-14.000000 8.700000 -25.000000
-14.000000 8.400000 -25.000000
-14.000000 8.100000 -25.000000
-14.000000 7.800000 -25.000000
-14.000000 7.500000 -25.000000
-14.000000 7.200000 -25.000000
-14.000000 6.900000 -25.000000
-14.000000 6.599999 -25.000000
-14.000000 6.299999 -25.000000
-14.000000 6.000000 -25.000000
-14.000000 5.700000 -25.000000
-14.000000 5.400000 -25.000000
-14.000000 5.099999 -25.000000
-14.000000 4.799999 -25.000000
-14.000000 4.500000 -25.000000
-14.000000 4.200000 -25.000000
-14.000000 3.900000 -25.000000
-14.000000 3.599999 -25.000000
-15.000000 15.000000 -25.000000
-15.000000 14.700000 -25.000000
-15.000000 14.400000 -25.000000
-15.000000 14.100000 -25.000000
-15.000000 13.800000 -25.000000
-15.000000 13.500000 -25.000000
-15.000000 13.200000 -25.000000
-15.000000 12.900000 -25.000000
-15.000000 12.600000 -25.000000
-15.000000 12.300000 -25.000000
-15.000000 12.000000 -25.000000
-15.000000 11.700000 -25.000000
-15.000000 11.400000 -25.000000
-15.000000 11.100000 -25.000000
-15.000000 10.799999 -25.000000
-15.000000 10.500000 -25.000000
-15.000000 10.200000 -25.000000
-15.000000 9.900000 -25.000000
-15.000000 9.600000 -25.000000
-15.000000 9.299999 -25.000000
-15.000000 9.000000 -25.000000
-15.000000 8.700000 -25.000000
-15.000000 8.400000 -25.000000
-15.000000 8.100000 -25.000000
-15.000000 7.800000 -25.000000
-15.000000 7.500000 -25.000000
-15.000000 7.200000 -25.000000
-15.000000 6.900000 -25.000000
-15.000000 6.599999 -25.000000
-15.000000 6.299999 -25.000000
-15.000000 6.000000 -25.000000
-15.000000 5.700000 -25.000000
-15.000000 5.400000 -25.000000
-15.000000 5.099999 -25.000000
-15.000000 4.799999 -25.000000
-15.000000 4.500000 -25.000000
-15.000000 4.200000 -25.000000
-15.000000 3.900000 -25.000000
-15.000000 3.599999 -25.000000
-15.000000 3.299999 -25.000000
-16.000000 15.000000 -25.000000
-16.000000 14.700000 -25.000000
-16.000000 14.400000 -25.000000
-16.000000 14.100000 -25.000000
-16.000000 13.800000 -25.000000
-16.000000 13.500000 -25.000000
-16.000000 13.200000 -25.000000
-16.000000 12.900000 -25.000000
-16.000000 12.600000 -25.000000
-16.000000 12.300000 -25.000000
-16.000000 12.000000 -25.000000
-16.000000 11.700000 -25.000000
-16.000000 11.400000 -25.000000
-16.000000 11.100000 -25.000000
-16.000000 10.799999 -25.000000
-16.000000 10.500000 -25.000000
-16.000000 10.200000 -25.000000
-16.000000 9.900000 -25.000000
-16.000000 9.600000 -25.000000
-16.000000 9.299999 -25.000000
-16.000000 9.000000 -25.000000
-16.000000 8.700000 -25.000000
-16.000000 8.400000 -25.000000
-16.000000 8.100000 -25.000000
-16.000000 7.800000 -25.000000
-16.000000 7.500000 -25.000000
-16.000000 7.200000 -25.000000
-16.000000 6.900000 -25.000000
-16.000000 6.599999 -25.000000
-16.000000 6.299999 -25.000000
-16.000000 6.000000 -25.000000
-16.000000 5.700000 -25.000000
-16.000000 5.400000 -25.000000
-16.000000 5.099999 -25.000000
-16.000000 4.799999 -25.000000
-16.000000 4.500000 -25.000000
-16.000000 4.200000 -25.000000
-16.000000 3.900000 -25.000000
-16.000000 3.599999 -25.000000
-16.000000 3.299999 -25.000000
-16.000000 3.000000 -25.000000
-17.000000 15.000000 -25.000000
-17.000000 14.700000 -25.000000
-17.000000 14.400000 -25.000000
-17.000000 14.100000 -25.000000
-17.000000 13.800000 -25.000000
-17.000000 13.500000 -25.000000
-17.000000 13.200000 -25.000000
-17.000000 12.900000 -25.000000
-17.000000 12.600000 -25.000000
-17.000000 12.300000 -25.000000
-17.000000 12.000000 -25.000000
-17.000000 11.700000 -25.000000
-17.000000 11.400000 -25.000000
-17.000000 11.100000 -25.000000
-17.000000 10.799999 -25.000000
-17.000000 10.500000 -25.000000
-17.000000 10.200000 -25.000000
-17.000000 9.900000 -25.000000
-17.000000 9.600000 -25.000000
-17.000000 9.299999 -25.000000
-17.000000 9.000000 -25.000000
-17.000000 8.700000 -25.000000
-17.000000 8.400000 -25.000000
-17.000000 8.100000 -25.000000
-17.000000 7.800000 -25.000000
-17.000000 7.500000 -25.000000
-17.000000 7.200000 -25.000000
-17.000000 6.900000 -25.000000
-17.000000 6.599999 -25.000000
-17.000000 6.299999 -25.000000
-17.000000 6.000000 -25.000000
-17.000000 5.700000 -25.000000
-17.000000 5.400000 -25.000000
-17.000000 5.099999 -25.000000
-17.000000 4.799999 -25.000000
-17.000000 4.500000 -25.000000
-17.000000 4.200000 -25.000000
-17.000000 3.900000 -25.000000
-17.000000 3.599999 -25.000000
-17.000000 3.299999 -25.000000
-17.000000 3.000000 -25.000000
-17.000000 2.700000 -25.000000
-18.000000 15.000000 -25.000000
-18.000000 14.700000 -25.000000
-18.000000 14.400000 -25.000000
-18.000000 14.100000 -25.000000
-18.000000 13.800000 -25.000000
-18.000000 13.500000 -25.000000
-18.000000 13.200000 -25.000000
-18.000000 12.900000 -25.000000
-18.000000 12.600000 -25.000000
-18.000000 12.300000 -25.000000
-18.000000 12.000000 -25.000000
-18.000000 11.700000 -25.000000
-18.000000 11.400000 -25.000000
-18.000000 11.100000 -25.000000
-18.000000 10.799999 -25.000000
-18.000000 10.500000 -25.000000
-18.000000 10.200000 -25.000000
-18.000000 9.900000 -25.000000
-18.000000 9.600000 -25.000000
-18.000000 9.299999 -25.000000
-18.000000 9.000000 -25.000000
-18.000000 8.700000 -25.000000
-18.000000 8.400000 -25.000000
-18.000000 8.100000 -25.000000
-18.000000 7.800000 -25.000000
-18.000000 7.500000 -25.000000
-18.000000 7.200000 -25.000000
-18.000000 6.900000 -25.000000
-18.000000 6.599999 -25.000000
-18.000000 6.299999 -25.000000
-18.000000 6.000000 -25.000000
-18.000000 5.700000 -25.000000
-18.000000 5.400000 -25.000000
-18.000000 5.099999 -25.000000
-18.000000 4.799999 -25.000000
-18.000000 4.500000 -25.000000
-18.000000 4.200000 -25.000000
-18.000000 3.900000 -25.000000
-18.000000 3.599999 -25.000000
-18.000000 3.299999 -25.000000
-18.000000 3.000000 -25.000000
-18.000000 2.700000 -25.000000
-18.000000 2.400000 -25.000000
-19.000000 15.000000 -25.000000
-19.000000 14.700000 -25.000000
-19.000000 14.400000 -25.000000
-19.000000 14.100000 -25.000000
-19.000000 13.800000 -25.000000
-19.000000 13.500000 -25.000000
-19.000000 13.200000 -25.000000
-19.000000 12.900000 -25.000000
-19.000000 12.600000 -25.000000
-19.000000 12.300000 -25.000000
-19.000000 12.000000 -25.000000
-19.000000 11.700000 -25.000000
-19.000000 11.400000 -25.000000
-19.000000 11.100000 -25.000000
-19.000000 10.799999 -25.000000
-19.000000 10.500000 -25.000000
-19.000000 10.200000 -25.000000
-19.000000 9.900000 -25.000000
-19.000000 9.600000 -25.000000
-19.000000 9.299999 -25.000000
-19.000000 9.000000 -25.000000
-19.000000 8.700000 -25.000000
-19.000000 8.400000 -25.000000
-19.000000 8.100000 -25.000000
-19.000000 7.800000 -25.000000
-19.000000 7.500000 -25.000000
-19.000000 7.200000 -25.000000
-19.000000 6.900000 -25.000000
-19.000000 6.599999 -25.000000
-19.000000 6.299999 -25.000000
-19.000000 6.000000 -25.000000
-19.000000 5.700000 -25.000000
-19.000000 5.400000 -25.000000
-19.000000 5.099999 -25.000000
-19.000000 4.799999 -25.000000
-19.000000 4.500000 -25.000000
-19.000000 4.200000 -25.000000
-19.000000 3.900000 -25.000000
-19.000000 3.599999 -25.000000
-19.000000 3.299999 -25.000000
-19.000000 3.000000 -25.000000
-19.000000 2.700000 -25.000000
-19.000000 2.400000 -25.000000
-19.000000 2.099999 -25.000000
-20.000000 15.000000 -25.000000
-20.000000 14.700000 -25.000000
-20.000000 14.400000 -25.000000
-20.000000 14.100000 -25.000000
-20.000000 13.800000 -25.000000
-20.000000 13.500000 -25.000000
-20.000000 13.200000 -25.000000
-20.000000 12.900000 -25.000000
-20.000000 12.600000 -25.000000
-20.000000 12.300000 -25.000000
-20.000000 12.000000 -25.000000
-20.000000 11.700000 -25.000000
-20.000000 11.400000 -25.000000
-20.000000 11.100000 -25.000000
-20.000000 10.799999 -25.000000
-20.000000 10.500000 -25.000000
-20.000000 10.200000 -25.000000
-20.000000 9.900000 -25.000000
-20.000000 9.600000 -25.000000
-20.000000 9.299999 -25.000000
-20.000000 9.000000 -25.000000
-20.000000 8.700000 -25.000000
-20.000000 8.400000 -25.000000
-20.000000 8.100000 -25.000000
-20.000000 7.800000 -25.000000
-20.000000 7.500000 -25.000000
-20.000000 7.200000 -25.000000
-20.000000 6.900000 -25.000000
-20.000000 6.599999 -25.000000
-20.000000 6.299999 -25.000000
-20.000000 6.000000 -25.000000
-20.000000 5.700000 -25.000000
-20.000000 5.400000 -25.000000
-20.000000 5.099999 -25.000000
-20.000000 4.799999 -25.000000
-20.000000 4.500000 -25.000000
-20.000000 4.200000 -25.000000
-20.000000 3.900000 -25.000000
-20.000000 3.599999 -25.000000
-20.000000 3.299999 -25.000000
-20.000000 3.000000 -25.000000
-20.000000 2.700000 -25.000000
-20.000000 2.400000 -25.000000
-20.000000 2.099999 -25.000000
-20.000000 1.799999 -25.000000
-21.000000 15.000000 -25.000000
-21.000000 14.700000 -25.000000
-21.000000 14.400000 -25.000000
-21.000000 14.100000 -25.000000
-21.000000 13.800000 -25.000000
-21.000000 13.500000 -25.000000
-21.000000 13.200000 -25.000000
-21.000000 12.900000 -25.000000
-21.000000 12.600000 -25.000000
-21.000000 12.300000 -25.000000
-21.000000 12.000000 -25.000000
-21.000000 11.700000 -25.000000
-21.000000 11.400000 -25.000000
-21.000000 11.100000 -25.000000
-21.000000 10.799999 -25.000000
-21.000000 10.500000 -25.000000
-21.000000 10.200000 -25.000000
-21.000000 9.900000 -25.000000
-21.000000 9.600000 -25.000000
-21.000000 9.299999 -25.000000
-21.000000 9.000000 -25.000000
-21.000000 8.700000 -25.000000
-21.000000 8.400000 -25.000000
-21.000000 8.100000 -25.000000
-21.000000 7.800000 -25.000000
-21.000000 7.500000 -25.000000
-21.000000 7.200000 -25.000000
-21.000000 6.900000 -25.000000
-21.000000 6.599999 -25.000000
-21.000000 6.299999 -25.000000
-21.000000 6.000000 -25.000000
-21.000000 5.700000 -25.000000
-21.000000 5.400000 -25.000000
-21.000000 5.099999 -25.000000
-21.000000 4.799999 -25.000000
-21.000000 4.500000 -25.000000
-21.000000 4.200000 -25.000000
-21.000000 3.900000 -25.000000
-21.000000 3.599999 -25.000000
-21.000000 3.299999 -25.000000
-21.000000 3.000000 -25.000000
-21.000000 2.700000 -25.000000
-21.000000 2.400000 -25.000000
-21.000000 2.099999 -25.000000
-21.000000 1.799999 -25.000000
-21.000000 1.499999 -25.000000
-22.000000 15.000000 -25.000000
-22.000000 14.700000 -25.000000
-22.000000 14.400000 -25.000000
-22.000000 14.100000 -25.000000
-22.000000 13.800000 -25.000000
-22.000000 13.500000 -25.000000
-22.000000 13.200000 -25.000000
-22.000000 12.900000 -25.000000
-22.000000 12.600000 -25.000000
-22.000000 12.300000 -25.000000
-22.000000 12.000000 -25.000000
-22.000000 11.700000 -25.000000
-22.000000 11.400000 -25.000000
-22.000000 11.100000 -25.000000
-22.000000 10.799999 -25.000000
-22.000000 10.500000 -25.000000
-22.000000 10.200000 -25.000000
-22.000000 9.900000 -25.000000
-22.000000 9.600000 -25.000000
-22.000000 9.299999 -25.000000
-22.000000 9.000000 -25.000000
-22.000000 8.700000 -25.000000
-22.000000 8.400000 -25.000000
-22.000000 8.100000 -25.000000
-22.000000 7.800000 -25.000000
-22.000000 7.500000 -25.000000
-22.000000 7.200000 -25.000000
-22.000000 6.900000 -25.000000
-22.000000 6.599999 -25.000000
-22.000000 6.299999 -25.000000
-22.000000 6.000000 -25.000000
-22.000000 5.700000 -25.000000
-22.000000 5.400000 -25.000000
-22.000000 5.099999 -25.000000
-22.000000 4.799999 -25.000000
-22.000000 4.500000 -25.000000
-22.000000 4.200000 -25.000000
-22.000000 3.900000 -25.000000
-22.000000 3.599999 -25.000000
-22.000000 3.299999 -25.000000
-22.000000 3.000000 -25.000000
-22.000000 2.700000 -25.000000
-22.000000 2.400000 -25.000000
-22.000000 2.099999 -25.000000
-22.000000 1.799999 -25.000000
-22.000000 1.499999 -25.000000
-22.000000 1.200000 -25.000000
-23.000000 15.000000 -25.000000
-23.000000 14.700000 -25.000000
-23.000000 14.400000 -25.000000
-23.000000 14.100000 -25.000000
-23.000000 13.800000 -25.000000
-23.000000 13.500000 -25.000000
-23.000000 13.200000 -25.000000
-23.000000 12.900000 -25.000000
-23.000000 12.600000 -25.000000
-23.000000 12.300000 -25.000000
-23.000000 12.000000 -25.000000
-23.000000 11.700000 -25.000000
-23.000000 11.400000 -25.000000
-23.000000 11.100000 -25.000000
-23.000000 10.799999 -25.000000
-23.000000 10.500000 -25.000000
-23.000000 10.200000 -25.000000
-23.000000 9.900000 -25.000000
-23.000000 9.600000 -25.000000
-23.000000 9.299999 -25.000000
-23.000000 9.000000 -25.000000
-23.000000 8.700000 -25.000000
-23.000000 8.400000 -25.000000
-23.000000 8.100000 -25.000000
-23.000000 7.800000 -25.000000
-23.000000 7.500000 -25.000000
-23.000000 7.200000 -25.000000
-23.000000 6.900000 -25.000000
-23.000000 6.599999 -25.000000
-23.000000 6.299999 -25.000000
-23.000000 6.000000 -25.000000
-23.000000 5.700000 -25.000000
-23.000000 5.400000 -25.000000
-23.000000 5.099999 -25.000000
-23.000000 4.799999 -25.000000
-23.000000 4.500000 -25.000000
-23.000000 4.200000 -25.000000
-23.000000 3.900000 -25.000000
-23.000000 3.599999 -25.000000
-23.000000 3.299999 -25.000000
-23.000000 3.000000 -25.000000
-23.000000 2.700000 -25.000000
-23.000000 2.400000 -25.000000
-23.000000 2.099999 -25.000000
-23.000000 1.799999 -25.000000
-23.000000 1.499999 -25.000000
-23.000000 1.200000 -25.000000
-23.000000 0.900000 -25.000000
-24.000000 15.000000 -25.000000
-24.000000 14.700000 -25.000000
-24.000000 14.400000 -25.000000
-24.000000 14.100000 -25.000000
-24.000000 13.800000 -25.000000
-24.000000 13.500000 -25.000000
-24.000000 13.200000 -25.000000
-24.000000 12.900000 -25.000000
-24.000000 12.600000 -25.000000
-24.000000 12.300000 -25.000000
-24.000000 12.000000 -25.000000
-24.000000 11.700000 -25.000000
-24.000000 11.400000 -25.000000
-24.000000 11.100000 -25.000000
-24.000000 10.799999 -25.000000
-24.000000 10.500000 -25.000000
-24.000000 10.200000 -25.000000
-24.000000 9.900000 -25.000000
-24.000000 9.600000 -25.000000
-24.000000 9.299999 -25.000000
-24.000000 9.000000 -25.000000
-24.000000 8.700000 -25.000000
-24.000000 8.400000 -25.000000
-24.000000 8.100000 -25.000000
-24.000000 7.800000 -25.000000
-24.000000 7.500000 -25.000000
-24.000000 7.200000 -25.000000
-24.000000 6.900000 -25.000000
-24.000000 6.599999 -25.000000
-24.000000 6.299999 -25.000000
-24.000000 6.000000 -25.000000
-24.000000 5.700000 -25.000000
-24.000000 5.400000 -25.000000
-24.000000 5.099999 -25.000000
-24.000000 4.799999 -25.000000
-24.000000 4.500000 -25.000000
-24.000000 4.200000 -25.000000
-24.000000 3.900000 -25.000000
-24.000000 3.599999 -25.000000
-24.000000 3.299999 -25.000000
-24.000000 3.000000 -25.000000
-24.000000 2.700000 -25.000000
-24.000000 2.400000 -25.000000
-24.000000 2.099999 -25.000000
-24.000000 1.799999 -25.000000
-24.000000 1.499999 -25.000000
-24.000000 1.200000 -25.000000
-24.000000 0.900000 -25.000000
-24.000000 0.599999 -25.000000
-25.000000 15.000000 -25.000000
-25.000000 14.700000 -25.000000
-25.000000 14.400000 -25.000000
-25.000000 14.100000 -25.000000
-25.000000 13.800000 -25.000000
-25.000000 13.500000 -25.000000
-25.000000 13.200000 -25.000000
-25.000000 12.900000 -25.000000
-25.000000 12.600000 -25.000000
-25.000000 12.300000 -25.000000
-25.000000 12.000000 -25.000000
-25.000000 11.700000 -25.000000
-25.000000 11.400000 -25.000000
-25.000000 11.100000 -25.000000
-25.000000 10.799999 -25.000000
-25.000000 10.500000 -25.000000
-25.000000 10.200000 -25.000000
-25.000000 9.900000 -25.000000
-25.000000 9.600000 -25.000000
-25.000000 9.299999 -25.000000
-25.000000 9.000000 -25.000000
-25.000000 8.700000 -25.000000
-25.000000 8.400000 -25.000000
-25.000000 8.100000 -25.000000
-25.000000 7.800000 -25.000000
-25.000000 7.500000 -25.000000
-25.000000 7.200000 -25.000000
-25.000000 6.900000 -25.000000
-25.000000 6.599999 -25.000000
-25.000000 6.299999 -25.000000
-25.000000 6.000000 -25.000000
-25.000000 5.700000 -25.000000
-25.000000 5.400000 -25.000000
-25.000000 5.099999 -25.000000
-25.000000 4.799999 -25.000000
-25.000000 4.500000 -25.000000
-25.000000 4.200000 -25.000000
-25.000000 3.900000 -25.000000
-25.000000 3.599999 -25.000000
-25.000000 3.299999 -25.000000
-25.000000 3.000000 -25.000000
-25.000000 2.700000 -25.000000
-25.000000 2.400000 -25.000000
-25.000000 2.099999 -25.000000
-25.000000 1.799999 -25.000000
-25.000000 1.499999 -25.000000
-25.000000 1.200000 -25.000000
-25.000000 0.900000 -25.000000
-25.000000 0.599999 -25.000000
-25.000000 0.299999 -25.000000
25.000000 14.700000 24.000000
25.000000 14.400000 23.000000
25.000000 14.400000 24.000000
25.000000 14.100000 22.000000
25.000000 14.100000 23.000000
25.000000 14.100000 24.000000
25.000000 13.800000 21.000000
25.000000 13.800000 22.000000
25.000000 13.800000 23.000000
25.000000 13.800000 24.000000
25.000000 13.500000 20.000000
25.000000 13.500000 21.000000
25.000000 13.500000 22.000000
25.000000 13.500000 23.000000
25.000000 13.500000 24.000000
25.000000 13.200000 19.000000
25.000000 13.200000 20.000000
25.000000 13.200000 21.000000
25.000000 13.200000 22.000000
25.000000 13.200000 23.000000
25.000000 13.200000 24.000000
25.000000 12.900000 18.000000
25.000000 12.900000 19.000000
25.000000 12.900000 20.000000
25.000000 12.900000 21.000000
25.000000 12.900000 22.000000
25.000000 12.900000 23.000000
25.000000 12.900000 24.000000
25.000000 12.600000 17.000000
25.000000 12.600000 18.000000
25.000000 12.600000 19.000000
25.000000 12.600000 20.000000
25.000000 12.600000 21.000000
25.000000 12.600000 22.000000
25.000000 12.600000 23.000000
25.000000 12.600000 24.000000
25.000000 12.300000 16.000000
25.000000 12.300000 17.000000
25.000000 12.300000 18.000000
25.000000 12.300000 19.000000
25.000000 12.300000 20.000000
25.000000 12.300000 21.000000
25.000000 12.300000 22.000000
25.000000 12.300000 23.000000
25.000000 12.300000 24.000000
25.000000 12.000000 15.000000
25.000000 12.000000 16.000000
25.000000 12.000000 17.000000
25.000000 12.000000 18.000000
25.000000 12.000000 19.000000
25.000000 12.000000 20.000000
25.000000 12.000000 21.000000
25.000000 12.000000 22.000000
25.000000 12.000000 23.000000
25.000000 12.000000 24.000000
25.000000 11.700000 14.000000
25.000000 11.700000 15.000000
25.000000 11.700000 16.000000
25.000000 11.700000 17.000000
25.000000 11.700000 18.000000
25.000000 11.700000 19.000000
25.000000 11.700000 20.000000
25.000000 11.700000 21.000000
25.000000 11.700000 22.000000
25.000000 11.700000 23.000000
25.000000 11.700000 24.000000
25.000000 11.400000 13.000000
25.000000 11.400000 14.000000
25.000000 11.400000 15.000000
25.000000 11.400000 16.000000
25.000000 11.400000 17.000000
25.000000 11.400000 18.000000
25.000000 11.400000 19.000000
25.000000 11.400000 20.000000
25.000000 11.400000 21.000000
25.000000 11.400000 22.000000
25.000000 11.400000 23.000000
25.000000 11.400000 24.000000
25.000000 11.100000 12.000000
25.000000 11.100000 13.000000
25.000000 11.100000 14.000000
25.000000 11.100000 15.000000
25.000000 11.100000 16.000000
25.000000 11.100000 17.000000
25.000000 11.100000 18.000000
25.000000 11.100000 19.000000
25.000000 11.100000 20.000000
25.000000 11.100000 21.000000
25.000000 11.100000 22.000000
25.000000 11.100000 23.000000
25.000000 11.100000 24.000000
25.000000 10.799999 11.000000
25.000000 10.799999 12.000000
25.000000 10.799999 13.000000
25.000000 10.799999 14.000000
25.000000 10.799999 15.000000
25.000000 10.799999 16.000000
25.000000 10.799999 17.000000
25.000000 10.799999 18.000000
25.000000 10.799999 19.000000
25.000000 10.799999 20.000000
25.000000 10.799999 21.000000
25.000000 10.799999 22.000000
25.000000 10.799999 23.000000
25.000000 10.799999 24.000000
25.000000 10.500000 10.000000
25.000000 10.500000 11.000000
25.000000 10.500000 12.000000
25.000000 10.500000 13.000000
25.000000 10.500000 14.000000
25.000000 10.500000 15.000000
25.000000 10.500000 16.000000
25.000000 10.500000 17.000000
25.000000 10.500000 18.000000
25.000000 10.500000 19.000000
25.000000 10.500000 20.000000
25.000000 10.500000 21.000000
25.000000 10.500000 22.000000
25.000000 10.500000 23.000000
25.000000 10.500000 24.000000
25.000000 10.200000 9.000000
25.000000 10.200000 10.000000
25.000000 10.200000 11.000000
25.000000 10.200000 12.000000
25.000000 10.200000 13.000000
25.000000 10.200000 14.000000
25.000000 10.200000 15.000000
25.000000 10.200000 16.000000
25.000000 10.200000 17.000000
25.000000 10.200000 18.000000
25.000000 10.200000 19.000000
25.000000 10.200000 20.000000
25.000000 10.200000 21.000000
25.000000 10.200000 22.000000
25.000000 10.200000 23.000000
25.000000 10.200000 24.000000
25.000000 9.900000 8.000000
25.000000 9.900000 9.000000
25.000000 9.900000 10.000000
25.000000 9.900000 11.000000
25.000000 9.900000 12.000000
25.000000 9.900000 13.000000
25.000000 9.900000 14.000000
25.000000 9.900000 15.000000
25.000000 9.900000 16.000000
25.000000 9.900000 17.000000
25.000000 9.900000 18.000000
25.000000 9.900000 19.000000
25.000000 9.900000 20.000000
25.000000 9.900000 21.000000
25.000000 9.900000 22.000000
25.000000 9.900000 23.000000
25.000000 9.900000 24.000000
25.000000 9.600000 7.000000
25.000000 9.600000 8.000000
25.000000 9.600000 9.000000
25.000000 9.600000 10.000000
25.000000 9.600000 11.000000
25.000000 9.600000 12.000000
25.000000 9.600000 13.000000
25.000000 9.600000 14.000000
25.000000 9.600000 15.000000
25.000000 9.600000 16.000000
25.000000 9.600000 17.000000
25.000000 9.600000 18.000000
25.000000 9.600000 19.000000
25.000000 9.600000 20.000000
25.000000 9.600000 21.000000
25.000000 9.600000 22.000000
25.000000 9.600000 23.000000
25.000000 9.600000 24.000000
25.000000 9.299999 6.000000
25.000000 9.299999 7.000000
25.000000 9.299999 8.000000
25.000000 9.299999 9.000000
25.000000 9.299999 10.000000
25.000000 9.299999 11.000000
25.000000 9.299999 12.000000
25.000000 9.299999 13.000000
25.000000 9.299999 14.000000
25.000000 9.299999 15.000000
25.000000 9.299999 16.000000
25.000000 9.299999 17.000000
25.000000 9.299999 18.000000
25.000000 9.299999 19.000000
25.000000 9.299999 20.000000
25.000000 9.299999 21.000000
25.000000 9.299999 22.000000
25.000000 9.299999 23.000000
25.000000 9.299999 24.000000
25.000000 9.000000 5.000000
25.000000 9.000000 6.000000
25.000000 9.000000 7.000000
25.000000 9.000000 8.000000
25.000000 9.000000 9.000000
25.000000 9.000000 10.000000
25.000000 9.000000 11.000000
25.000000 9.000000 12.000000
25.000000 9.000000 13.000000
25.000000 9.000000 14.000000
25.000000 9.000000 15.000000
25.000000 9.000000 16.000000
25.000000 9.000000 17.000000
25.000000 9.000000 18.000000
25.000000 9.000000 19.000000
25.000000 9.000000 20.000000
25.000000 9.000000 21.000000
25.000000 9.000000 22.000000
25.000000 9.000000 23.000000
25.000000 9.000000 24.000000
25.000000 8.700000 4.000000
25.000000 8.700000 5.000000
25.000000 8.700000 6.000000
25.000000 8.700000 7.000000
25.000000 8.700000 8.000000
25.000000 8.700000 9.000000
25.000000 8.700000 10.000000
25.000000 8.700000 11.000000
25.000000 8.700000 12.000000
25.000000 8.700000 13.000000
25.000000 8.700000 14.000000
25.000000 8.700000 15.000000
25.000000 8.700000 16.000000
25.000000 8.700000 17.000000
25.000000 8.700000 18.000000
25.000000 8.700000 19.000000
25.000000 8.700000 20.000000
25.000000 8.700000 21.000000
25.000000 8.700000 22.000000
25.000000 8.700000 23.000000
25.000000 8.700000 24.000000
25.000000 8.400000 3.000000
25.000000 8.400000 4.000000
25.000000 8.400000 5.000000
25.000000 8.400000 6.000000
25.000000 8.400000 7.000000
25.000000 8.400000 8.000000
25.000000 8.400000 9.000000
25.000000 8.400000 10.000000
25.000000 8.400000 11.000000
25.000000 8.400000 12.000000
25.000000 8.400000 13.000000
25.000000 8.400000 14.000000
25.000000 8.400000 15.000000
25.000000 8.400000 16.000000
25.000000 8.400000 17.000000
25.000000 8.400000 18.000000
25.000000 8.400000 19.000000
25.000000 8.400000 20.000000
25.000000 8.400000 21.000000
25.000000 8.400000 22.000000
25.000000 8.400000 23.000000
25.000000 8.400000 24.000000
25.000000 8.100000 2.000000
25.000000 8.100000 3.000000
25.000000 8.100000 4.000000
25.000000 8.100000 5.000000
25.000000 8.100000 6.000000
25.000000 8.100000 7.000000
25.000000 8.100000 8.000000
25.000000 8.100000 9.000000
25.000000 8.100000 10.000000
25.000000 8.100000 11.000000
25.000000 8.100000 12.000000
25.000000 8.100000 13.000000
25.000000 8.100000 14.000000
25.000000 8.100000 15.000000
25.000000 8.100000 16.000000
25.000000 8.100000 17.000000
25.000000 8.100000 18.000000
25.000000 8.100000 19.000000
25.000000 8.100000 20.000000
25.000000 8.100000 21.000000
25.000000 8.100000 22.000000
25.000000 8.100000 23.000000
25.000000 8.100000 24.000000
25.000000 7.800000 1.000000
25.000000 7.800000 2.000000
25.000000 7.800000 3.000000
25.000000 7.800000 4.000000
25.000000 7.800000 5.000000
25.000000 7.800000 6.000000
25.000000 7.800000 7.000000
25.000000 7.800000 8.000000
25.000000 7.800000 9.000000
25.000000 7.800000 10.000000
25.000000 7.800000 11.000000
25.000000 7.800000 12.000000
25.000000 7.800000 13.000000
25.000000 7.800000 14.000000
25.000000 7.800000 15.000000
25.000000 7.800000 16.000000
25.000000 7.800000 17.000000
25.000000 7.800000 18.000000
25.000000 7.800000 19.000000
25.000000 7.800000 20.000000
25.000000 7.800000 21.000000
25.000000 7.800000 22.000000
25.000000 7.800000 23.000000
25.000000 7.800000 24.000000
25.000000 7.500000 0.000000
25.000000 7.500000 1.000000
25.000000 7.500000 2.000000
25.000000 7.500000 3.000000
25.000000 7.500000 4.000000
25.000000 7.500000 5.000000
25.000000 7.500000 6.000000
25.000000 7.500000 7.000000
25.000000 7.500000 8.000000
25.000000 7.500000 9.000000
25.000000 7.500000 10.000000
25.000000 7.500000 11.000000
25.000000 7.500000 12.000000
25.000000 7.500000 13.000000
25.000000 7.500000 14.000000
25.000000 7.500000 15.000000
25.000000 7.500000 16.000000
25.000000 7.500000 17.000000
25.000000 7.500000 18.000000
25.000000 7.500000 19.000000
25.000000 7.500000 20.000000
25.000000 7.500000 21.000000
25.000000 7.500000 22.000000
25.000000 7.500000 23.000000
25.000000 7.500000 24.000000
25.000000 7.200000 -1.000000
25.000000 7.200000 0.000000
25.000000 7.200000 1.000000
25.000000 7.200000 2.000000
25.000000 7.200000 3.000000
25.000000 7.200000 4.000000
25.000000 7.200000 5.000000
25.000000 7.200000 6.000000
25.000000 7.200000 7.000000
25.000000 7.200000 8.000000
25.000000 7.200000 9.000000
25.000000 7.200000 10.000000
25.000000 7.200000 11.000000
25.000000 7.200000 12.000000
25.000000 7.200000 13.000000
25.000000 7.200000 14.000000
25.000000 7.200000 15.000000
25.000000 7.200000 16.000000
25.000000 7.200000 17.000000
25.000000 7.200000 18.000000
25.000000 7.200000 19.000000
25.000000 7.200000 20.000000
25.000000 7.200000 21.000000
25.000000 7.200000 22.000000
25.000000 7.200000 23.000000
25.000000 7.200000 24.000000
25.000000 6.900000 -2.000000
25.000000 6.900000 -1.000000
25.000000 6.900000 0.000000
25.000000 6.900000 1.000000
25.000000 6.900000 2.000000
25.000000 6.900000 3.000000
25.000000 6.900000 4.000000
25.000000 6.900000 5.000000
25.000000 6.900000 6.000000
25.000000 6.900000 7.000000
25.000000 6.900000 8.000000
25.000000 6.900000 9.000000
25.000000 6.900000 10.000000
25.000000 6.900000 11.000000
25.000000 6.900000 12.000000
25.000000 6.900000 13.000000
25.000000 6.900000 14.000000
25.000000 6.900000 15.000000
25.000000 6.900000 16.000000
25.000000 6.900000 17.000000
25.000000 6.900000 18.000000
25.000000 6.900000 19.000000
25.000000 6.900000 20.000000
25.000000 6.900000 21.000000
25.000000 6.900000 22.000000
25.000000 6.900000 23.000000
25.000000 6.900000 24.000000
25.000000 6.599999 -3.000000
25.000000 6.599999 -2.000000
25.000000 6.599999 -1.000000
25.000000 6.599999 0.000000
25.000000 6.599999 1.000000
25.000000 6.599999 2.000000
25.000000 6.599999 3.000000
25.000000 6.599999 4.000000
25.000000 6.599999 5.000000
25.000000 6.599999 6.000000
25.000000 6.599999 7.000000
25.000000 6.599999 8.000000
25.000000 6.599999 9.000000
25.000000 6.599999 10.000000
25.000000 6.599999 11.000000
25.000000 6.599999 12.000000
25.000000 6.599999 13.000000
25.000000 6.599999 14.000000
25.000000 6.599999 15.000000
25.000000 6.599999 16.000000
25.000000 6.599999 17.000000
25.000000 6.599999 18.000000
25.000000 6.599999 19.000000
25.000000 6.599999 20.000000
25.000000 6.599999 21.000000
25.000000 6.599999 22.000000
25.000000 6.599999 23.000000
25.000000 6.599999 24.000000
25.000000 6.299999 -4.000000
25.000000 6.299999 -3.000000
25.000000 6.299999 -2.000000
25.000000 6.299999 -1.000000
25.000000 6.299999 0.000000
25.000000 6.299999 1.000000
25.000000 6.299999 2.000000
25.000000 6.299999 3.000000
25.000000 6.299999 4.000000
25.000000 6.299999 5.000000
25.000000 6.299999 6.000000
25.000000 6.299999 7.000000
25.000000 6.299999 8.000000
25.000000 6.299999 9.000000
25.000000 6.299999 10.000000
25.000000 6.299999 11.000000
25.000000 6.299999 12.000000
25.000000 6.299999 13.000000
25.000000 6.299999 14.000000
25.000000 6.299999 15.000000
25.000000 6.299999 16.000000
25.000000 6.299999 17.000000
25.000000 6.299999 18.000000
25.000000 6.299999 19.000000
25.000000 6.299999 20.000000
25.000000 6.299999 21.000000
25.000000 6.299999 22.000000
25.000000 6.299999 23.000000
25.000000 6.299999 24.000000
25.000000 6.000000 -5.000000
25.000000 6.000000 -4.000000
25.000000 6.000000 -3.000000
25.000000 6.000000 -2.000000
25.000000 6.000000 -1.000000
25.000000 6.000000 0.000000
25.000000 6.000000 1.000000
25.000000 6.000000 2.000000
25.000000 6.000000 3.000000
25.000000 6.000000 4.000000
25.000000 6.000000 5.000000
25.000000 6.000000 6.000000
25.000000 6.000000 7.000000
25.000000 6.000000 8.000000
25.000000 6.000000 9.000000
25.000000 6.000000 10.000000
25.000000 6.000000 11.000000
25.000000 6.000000 12.000000
25.000000 6.000000 13.000000
25.000000 6.000000 14.000000
25.000000 6.000000 15.000000
25.000000 6.000000 16.000000
25.000000 6.000000 17.000000
25.000000 6.000000 18.000000
25.000000 6.000000 19.000000
25.000000 6.000000 20.000000
25.000000 6.000000 21.000000
25.000000 6.000000 22.000000
25.000000 6.000000 23.000000
25.000000 6.000000 24.000000
25.000000 5.700000 -6.000000
25.000000 5.700000 -5.000000
25.000000 5.700000 -4.000000
25.000000 5.700000 -3.000000
25.000000 5.700000 -2.000000
25.000000 5.700000 -1.000000
25.000000 5.700000 0.000000
25.000000 5.700000 1.000000
25.000000 5.700000 2.000000
25.000000 5.700000 3.000000
25.000000 5.700000 4.000000
25.000000 5.700000 5.000000
25.000000 5.700000 6.000000
25.000000 5.700000 7.000000
25.000000 5.700000 8.000000
25.000000 5.700000 9.000000
25.000000 5.700000 10.000000
25.000000 5.700000 11.000000
25.000000 5.700000 12.000000
25.000000 5.700000 13.000000
25.000000 5.700000 14.000000
25.000000 5.700000 15.000000
25.000000 5.700000 16.000000
25.000000 5.700000 17.000000
25.000000 5.700000 18.000000
25.000000 5.700000 19.000000
25.000000 5.700000 20.000000
25.000000 5.700000 21.000000
25.000000 5.700000 22.000000
25.000000 5.700000 23.000000
25.000000 5.700000 24.000000
25.000000 5.400000 -7.000000
25.000000 5.400000 -6.000000
25.000000 5.400000 -5.000000
25.000000 5.400000 -4.000000
25.000000 5.400000 -3.000000
25.000000 5.400000 -2.000000
25.000000 5.400000 -1.000000
25.000000 5.400000 0.000000
25.000000 5.400000 1.000000
25.000000 5.400000 2.000000
25.000000 5.400000 3.000000
25.000000 5.400000 4.000000
25.000000 5.400000 5.000000
25.000000 5.400000 6.000000
25.000000 5.400000 7.000000
25.000000 5.400000 8.000000
25.000000 5.400000 9.000000
25.000000 5.400000 10.000000
25.000000 5.400000 11.000000
25.000000 5.400000 12.000000
25.000000 5.400000 13.000000
25.000000 5.400000 14.000000
25.000000 5.400000 15.000000
25.000000 5.400000 16.000000
25.000000 5.400000 17.000000
25.000000 5.400000 18.000000
25.000000 5.400000 19.000000
25.000000 5.400000 20.000000
25.000000 5.400000 21.000000
25.000000 5.400000 22.000000
25.000000 5.400000 23.000000
25.000000 5.400000 24.000000
25.000000 5.099999 -8.000000
25.000000 5.099999 -7.000000
25.000000 5.099999 -6.000000
25.000000 5.099999 -5.000000
25.000000 5.099999 -4.000000
25.000000 5.099999 -3.000000
25.000000 5.099999 -2.000000
25.000000 5.099999 -1.000000
25.000000 5.099999 0.000000
25.000000 5.099999 1.000000
25.000000 5.099999 2.000000
25.000000 5.099999 3.000000
25.000000 5.099999 4.000000
25.000000 5.099999 5.000000
25.000000 5.099999 6.000000
25.000000 5.099999 7.000000
25.000000 5.099999 8.000000
25.000000 5.099999 9.000000
25.000000 5.099999 10.000000
25.000000 5.099999 11.000000
25.000000 5.099999 12.000000
25.000000 5.099999 13.000000
25.000000 5.099999 14.000000
25.000000 5.099999 15.000000
25.000000 5.099999 16.000000
25.000000 5.099999 17.000000
25.000000 5.099999 18.000000
25.000000 5.099999 19.000000
25.000000 5.099999 20.000000
25.000000 5.099999 21.000000
25.000000 5.099999 22.000000
25.000000 5.099999 23.000000
25.000000 5.099999 24.000000
25.000000 4.799999 -9.000000
25.000000 4.799999 -8.000000
25.000000 4.799999 -7.000000
25.000000 4.799999 -6.000000
25.000000 4.799999 -5.000000
25.000000 4.799999 -4.000000
25.000000 4.799999 -3.000000
25.000000 4.799999 -2.000000
25.000000 4.799999 -1.000000
25.000000 4.799999 0.000000
25.000000 4.799999 1.000000
25.000000 4.799999 2.000000
25.000000 4.799999 3.000000
25.000000 4.799999 4.000000
25.000000 4.799999 5.000000
25.000000 4.799999 6.000000
25.000000 4.799999 7.000000
25.000000 4.799999 8.000000
25.000000 4.799999 9.000000
25.000000 4.799999 10.000000
25.000000 4.799999 11.000000
25.000000 4.799999 12.000000
25.000000 4.799999 13.000000
25.000000 4.799999 14.000000
25.000000 4.799999 15.000000
25.000000 4.799999 16.000000
25.000000 4.799999 17.000000
25.000000 4.799999 18.000000
25.000000 4.799999 19.000000
25.000000 4.799999 20.000000
25.000000 4.799999 21.000000
25.000000 4.799999 22.000000
25.000000 4.799999 23.000000
25.000000 4.799999 24.000000
25.000000 4.500000 -10.000000
25.000000 4.500000 -9.000000
25.000000 4.500000 -8.000000
25.000000 4.500000 -7.000000
25.000000 4.500000 -6.000000
25.000000 4.500000 -5.000000
25.000000 4.500000 -4.000000
25.000000 4.500000 -3.000000
25.000000 4.500000 -2.000000
25.000000 4.500000 -1.000000
25.000000 4.500000 0.000000
25.000000 4.500000 1.000000
25.000000 4.500000 2.000000
25.000000 4.500000 3.000000
25.000000 4.500000 4.000000
25.000000 4.500000 5.000000
25.000000 4.500000 6.000000
25.000000 4.500000 7.000000
25.000000 4.500000 8.000000
25.000000 4.500000 9.000000
25.000000 4.500000 10.000000
25.000000 4.500000 11.000000
25.000000 4.500000 12.000000
25.000000 4.500000 13.000000
25.000000 4.500000 14.000000
25.000000 4.500000 15.000000
25.000000 4.500000 16.000000
25.000000 4.500000 17.000000
25.000000 4.500000 18.000000
25.000000 4.500000 19.000000
25.000000 4.500000 20.000000
25.000000 4.500000 21.000000
25.000000 4.500000 22.000000
25.000000 4.500000 23.000000
25.000000 4.500000 24.000000
25.000000 4.200000 -11.000000
25.000000 4.200000 -10.000000
25.000000 4.200000 -9.000000
25.000000 4.200000 -8.000000
25.000000 4.200000 -7.000000
25.000000 4.200000 -6.000000
25.000000 4.200000 -5.000000
25.000000 4.200000 -4.000000
25.000000 4.200000 -3.000000
25.000000 4.200000 -2.000000
25.000000 4.200000 -1.000000
25.000000 4.200000 0.000000
25.000000 4.200000 1.000000
25.000000 4.200000 2.000000
25.000000 4.200000 3.000000
25.000000 4.200000 4.000000
25.000000 4.200000 5.000000
25.000000 4.200000 6.000000
25.000000 4.200000 7.000000
25.000000 4.200000 8.000000
25.000000 4.200000 9.000000
25.000000 4.200000 10.000000
25.000000 4.200000 11.000000
25.000000 4.200000 12.000000
25.000000 4.200000 13.000000
25.000000 4.200000 14.000000
25.000000 4.200000 15.000000
25.000000 4.200000 16.000000
25.000000 4.200000 17.000000
25.000000 4.200000 18.000000
25.000000 4.200000 19.000000
25.000000 4.200000 20.000000
25.000000 4.200000 21.000000
25.000000 4.200000 22.000000
25.000000 4.200000 23.000000
25.000000 4.200000 24.000000
25.000000 3.900000 -12.000000
25.000000 3.900000 -11.000000
25.000000 3.900000 -10.000000
25.000000 3.900000 -9.000000
25.000000 3.900000 -8.000000
25.000000 3.900000 -7.000000
25.000000 3.900000 -6.000000
25.000000 3.900000 -5.000000
25.000000 3.900000 -4.000000
25.000000 3.900000 -3.000000
25.000000 3.900000 -2.000000
25.000000 3.900000 -1.000000
25.000000 3.900000 0.000000
25.000000 3.900000 1.000000
25.000000 3.900000 2.000000
25.000000 3.900000 3.000000
25.000000 3.900000 4.000000
25.000000 3.900000 5.000000
25.000000 3.900000 6.000000
25.000000 3.900000 7.000000
25.000000 3.900000 8.000000
25.000000 3.900000 9.000000
25.000000 3.900000 10.000000
25.000000 3.900000 11.000000
25.000000 3.900000 12.000000
25.000000 3.900000 13.000000
25.000000 3.900000 14.000000
25.000000 3.900000 15.000000
25.000000 3.900000 16.000000
25.000000 3.900000 17.000000
25.000000 3.900000 18.000000
25.000000 3.900000 19.000000
25.000000 3.900000 20.000000
25.000000 3.900000 21.000000
25.000000 3.900000 22.000000
25.000000 3.900000 23.000000
25.000000 3.900000 24.000000
25.000000 3.599999 -13.000000
25.000000 3.599999 -12.000000
25.000000 3.599999 -11.000000
25.000000 3.599999 -10.000000
25.000000 3.599999 -9.000000
25.000000 3.599999 -8.000000
25.000000 3.599999 -7.000000
25.000000 3.599999 -6.000000
25.000000 3.599999 -5.000000
25.000000 3.599999 -4.000000
25.000000 3.599999 -3.000000
25.000000 3.599999 -2.000000
25.000000 3.599999 -1.000000
25.000000 3.599999 0.000000
25.000000 3.599999 1.000000
25.000000 3.599999 2.000000
25.000000 3.599999 3.000000
25.000000 3.599999 4.000000
25.000000 3.599999 5.000000
25.000000 3.599999 6.000000
25.000000 3.599999 7.000000
25.000000 3.599999 8.000000
25.000000 3.599999 9.000000
25.000000 3.599999 10.000000
25.000000 3.599999 11.000000
25.000000 3.599999 12.000000
25.000000 3.599999 13.000000
25.000000 3.599999 14.000000
25.000000 3.599999 15.000000
25.000000 3.599999 16.000000
25.000000 3.599999 17.000000
25.000000 3.599999 18.000000
25.000000 3.599999 19.000000
25.000000 3.599999 20.000000
25.000000 3.599999 21.000000
25.000000 3.599999 22.000000
25.000000 3.599999 23.000000
25.000000 3.599999 24.000000
25.000000 3.299999 -14.000000
25.000000 3.299999 -13.000000
25.000000 3.299999 -12.000000
25.000000 3.299999 -11.000000
25.000000 3.299999 -10.000000
25.000000 3.299999 -9.000000
25.000000 3.299999 -8.000000
25.000000 3.299999 -7.000000
25.000000 3.299999 -6.000000
25.000000 3.299999 -5.000000
25.000000 3.299999 -4.000000
25.000000 3.299999 -3.000000
25.000000 3.299999 -2.000000
25.000000 3.299999 -1.000000
25.000000 3.299999 0.000000
25.000000 3.299999 1.000000
25.000000 3.299999 2.000000
25.000000 3.299999 3.000000
25.000000 3.299999 4.000000
25.000000 3.299999 5.000000
25.000000 3.299999 6.000000
25.000000 3.299999 7.000000
25.000000 3.299999 8.000000
25.000000 3.299999 9.000000
25.000000 3.299999 10.000000
25.000000 3.299999 11.000000
25.000000 3.299999 12.000000
25.000000 3.299999 13.000000
25.000000 3.299999 14.000000
25.000000 3.299999 15.000000
25.000000 3.299999 16.000000
25.000000 3.299999 17.000000
25.000000 3.299999 18.000000
25.000000 3.299999 19.000000
25.000000 3.299999 20.000000
25.000000 3.299999 21.000000
25.000000 3.299999 22.000000
25.000000 3.299999 23.000000
25.000000 3.299999 24.000000
25.000000 3.000000 -15.000000
25.000000 3.000000 -14.000000
25.000000 3.000000 -13.000000
25.000000 3.000000 -12.000000
25.000000 3.000000 -11.000000
25.000000 3.000000 -10.000000
25.000000 3.000000 -9.000000
25.000000 3.000000 -8.000000
25.000000 3.000000 -7.000000
25.000000 3.000000 -6.000000
25.000000 3.000000 -5.000000
25.000000 3.000000 -4.000000
25.000000 3.000000 -3.000000
25.000000 3.000000 -2.000000
25.000000 3.000000 -1.000000
25.000000 3.000000 0.000000
25.000000 3.000000 1.000000
25.000000 3.000000 2.000000
25.000000 3.000000 3.000000
25.000000 3.000000 4.000000
25.000000 3.000000 5.000000
25.000000 3.000000 6.000000
25.000000 3.000000 7.000000
25.000000 3.000000 8.000000
25.000000 3.000000 9.000000
25.000000 3.000000 10.000000
25.000000 3.000000 11.000000
25.000000 3.000000 12.000000
25.000000 3.000000 13.000000
25.000000 3.000000 14.000000
25.000000 3.000000 15.000000
25.000000 3.000000 16.000000
25.000000 3.000000 17.000000
25.000000 3.000000 18.000000
25.000000 3.000000 19.000000
25.000000 3.000000 20.000000
25.000000 3.000000 21.000000
25.000000 3.000000 22.000000
25.000000 3.000000 23.000000
25.000000 3.000000 24.000000
25.000000 2.700000 -16.000000
25.000000 2.700000 -15.000000
25.000000 2.700000 -14.000000
25.000000 2.700000 -13.000000
25.000000 2.700000 -12.000000
25.000000 2.700000 -11.000000
25.000000 2.700000 -10.000000
25.000000 2.700000 -9.000000
25.000000 2.700000 -8.000000
25.000000 2.700000 -7.000000
25.000000 2.700000 -6.000000
25.000000 2.700000 -5.000000
25.000000 2.700000 -4.000000
25.000000 2.700000 -3.000000
25.000000 2.700000 -2.000000
